1975921
30.246275 28.860071 5.839703 -1617 103 94 99
29.818795 29.147679 5.557842 -1455 139 152 135
30.182201 28.955397 5.910961 -1290 108 96 108
30.163333 28.903192 5.968365 -1442 88 80 78
30.184306 28.925123 5.945568 -1185 101 88 97
30.247631 28.958725 5.909771 -1581 76 71 75
30.206658 28.818916 5.907727 -1299 94 92 93
30.224255 28.869308 5.852520 -1332 93 82 80
30.210361 28.789543 5.869244 -1380 91 85 89
30.239308 28.756494 5.861431 -1709 107 98 103
30.182485 28.825820 5.898663 -1378 100 89 95
30.210221 28.854720 5.875164 -1558 93 88 92
30.218608 28.798377 5.935162 -1306 98 88 87
30.187291 28.830855 5.942822 -1275 109 97 97
30.195044 28.903747 5.867871 -1640 90 80 78
30.183403 28.924171 5.856762 -1539 86 73 80
30.107866 29.133547 5.698712 -1337 80 74 74
30.264708 29.300876 5.666851 -1498 86 84 87
30.290276 29.295466 5.832073 -1190 118 106 106
30.293614 29.266464 5.796124 -1453 66 66 68
30.107568 29.262972 5.811260 -1162 123 104 106
30.017523 29.101480 5.798474 -1111 107 96 104
30.126375 29.153304 5.786694 -1311 99 103 104
30.144584 29.140314 5.794903 -1422 113 114 116
30.127570 29.122208 5.818035 -1380 99 93 93
30.016785 29.132945 5.799114 -396 131 116 121
29.858077 29.158095 5.741436 -1072 73 67 67
30.172156 29.202176 5.851361 -1014 78 73 70
30.285309 29.322897 5.868359 -1350 76 78 75
30.039093 29.287969 5.952679 -1525 82 80 83
30.048796 29.232534 5.940228 -1249 120 114 116
30.071074 29.223764 5.946301 -1532 105 96 96
30.056112 29.175145 5.863964 -408 113 114 108
30.055034 29.206506 5.902478 -1262 127 127 125
30.030898 29.148120 5.931469 -1591 76 71 72
30.081153 29.008121 6.024151 -1340 91 82 84
29.815228 29.241487 5.886608 -1550 79 75 72
30.023568 29.271190 5.930920 -1376 95 89 91
29.910848 29.215458 5.849377 -1195 53 53 51
29.892869 29.392555 5.888592 -1047 69 68 66
29.791943 29.248327 5.897900 -1417 82 78 77
29.544914 26.681435 5.697338 -859 146 153 164
29.257786 28.287677 5.417614 -1427 99 91 88
29.845453 29.078414 5.586743 -1260 93 93 93
29.666324 28.537176 5.579205 -1414 82 79 88
29.453898 28.719006 5.549938 -1491 124 136 134
29.456973 28.690077 5.583172 -1435 152 149 142
29.584142 26.662832 5.429974 -1108 166 165 163
29.834248 27.411156 5.569958 -1675 137 131 131
29.756590 27.392551 5.586254 -1280 221 218 209
29.599418 26.704251 5.439892 -510 163 172 169
29.607763 26.684960 5.448284 -1075 216 203 203
29.745883 26.786652 5.560589 -1616 232 235 222
29.597394 26.813993 5.556347 -1545 204 205 187
29.633111 26.819609 5.560955 -1278 215 209 198
29.647220 26.805638 5.531262 -1688 226 227 211
29.625092 26.840169 5.574566 -1563 185 186 170
29.582301 26.688214 5.561962 -1609 220 221 202
29.603882 26.681310 5.488812 -1029 179 174 165
29.600087 26.788416 5.542736 -1478 227 228 211
29.484824 26.734287 5.587200 -584 178 174 165
29.454002 26.815639 5.335705 -1190 215 203 205
29.472878 26.833664 5.354107 -1111 120 124 110
29.487154 26.847292 5.373120 -1172 148 133 138
29.476851 26.810181 5.384320 -1275 191 174 180
28.888706 27.448937 5.077984 -740 225 250 255
29.114455 27.743458 5.259167 -1281 147 163 178
29.357201 27.874576 5.333935 -1337 155 160 166
29.389851 27.878851 5.339520 -1113 80 89 96
29.168357 27.739604 5.275158 -1340 255 252 255
29.295110 27.901531 5.315106 -1306 150 142 139
29.237426 27.750588 5.303021 -1191 115 126 128
29.191362 27.732728 5.237652 -1353 223 236 253
29.261730 27.717504 5.310864 -1584 96 126 116
29.244331 27.728525 5.310436 -1620 133 155 132
29.479220 27.881745 5.376660 -1204 96 87 88
29.563463 27.906984 5.461529 -1214 123 137 140
29.504015 27.907215 5.395428 -1026 86 72 85
29.428471 27.918769 5.419781 -1226 99 90 91
29.468554 28.020271 5.421520 -1370 130 118 120
29.486718 28.070561 5.540203 -1260 141 133 148
29.530897 27.964678 5.512554 -1291 120 122 137
29.509661 27.942820 5.472149 -1168 96 84 88
29.483348 28.035652 5.567730 -1216 114 126 114
29.305992 27.673180 5.388653 -1108 128 117 121
29.378443 27.807787 5.440350 -1027 99 93 95
29.393862 27.823631 5.460217 -916 117 107 105
29.120941 28.020267 5.213177 -1573 234 250 255
29.134357 28.094867 5.172497 -1099 232 248 248
29.225786 28.162139 5.151562 -1321 240 254 255
29.217042 28.152848 5.194409 -1509 242 251 255
29.202327 28.137189 5.216931 -1553 240 255 255
29.132386 28.062685 5.181835 -1275 219 228 233
29.139150 28.129803 5.181652 -1389 248 254 254
29.125763 28.146208 5.198803 -1245 248 253 255
29.214681 28.241487 5.315960 -1267 177 171 171
29.207943 28.173398 5.249310 -1371 199 227 239
29.170449 28.255111 5.314007 -1214 148 145 140
29.205590 28.140657 5.237438 -1309 226 249 255
29.208690 28.143943 5.258221 -1111 181 206 211
29.165274 28.067404 5.271313 -1077 88 98 97
29.076260 28.062583 5.333081 -1283 151 144 134
29.119935 28.019202 5.296337 -1696 78 84 84
29.135883 28.005624 5.270733 -1134 170 181 185
29.116836 27.926079 5.275006 -1347 105 103 150
29.122983 27.962055 5.264141 -1267 105 144 149
29.111559 27.979810 5.293774 -1480 101 105 108
29.078574 28.156293 5.364208 -1139 189 184 178
29.250135 28.248494 5.464886 -1285 177 184 168
29.075163 28.183261 5.398907 -1232 38 57 55
29.099643 28.118274 5.367932 -1627 175 169 169
29.238583 28.236146 5.486950 -1283 179 184 164
29.027946 28.193906 5.454266 -1507 144 127 137
